-20.000681 38.807392 12.256987
-19.423034 38.825221 12.018395
-18.832138 38.844578 11.746527
-18.250691 38.86281 11.499623
-17.688569 38.878854 11.30067
-17.110873 38.897149 11.052691
-16.473599 38.922347 10.653596
-15.840022 38.947079 10.265042
-15.195528 38.973037 9.8498557
-14.545659 38.999576 9.4222119
-13.854395 39.030135 8.9068376
-13.159402 39.060749 8.3905756
-12.408619 39.097749 7.7348691
-11.698776 39.129958 7.184329
-10.750026 39.189626 6.0335831
-44.538401 38.359284 3.4859141
-44.320419 38.33307 4.222943
-43.933686 38.326949 4.5095072
-43.548163 38.321011 4.7921608
-43.218601 38.306311 5.2708066
-42.994466 38.288675 5.8152089
-42.667922 38.274646 6.2788739
-42.195708 38.278736 6.3368375
-41.865058 38.26442 6.8067643
-41.635022 38.249139 7.2982586
-41.312352 38.234111 7.7839568
-40.843092 38.238347 7.8388704
-40.48761 38.228706 8.2040112
-40.206928 38.217533 8.6034331
-39.82114 38.209766 8.9266254
-39.357759 38.212877 9.006843
-39.02803 38.200263 9.4384272
-38.763955 38.188551 9.8498035
-38.335647 38.184106 10.098781
-37.881933 38.187046 10.182868
-37.543323 38.179092 10.510209
-37.169207 38.172416 10.809022
-36.686506 38.175318 10.894129
-36.318429 38.17106 11.139045
-36.01446 38.164649 11.432005
-35.540521 38.167026 11.528823
-35.097897 38.166407 11.692665
-34.728769 38.164161 11.892737
-34.301218 38.162079 12.089308
-33.809766 38.164653 12.181991
-33.496134 38.162325 12.384052
-33.088025 38.161252 12.558193
-32.602917 38.163349 12.661652
-32.195631 38.164817 12.779175
-31.7505 38.167004 12.880957
-31.281382 38.170826 12.946096
-30.855779 38.172714 13.054409
-30.461965 38.173147 13.195372
-29.946057 38.178869 13.218611
-29.517857 38.183037 13.276409
-29.078005 38.18715 13.335639
-28.549615 38.191658 13.385983
-28.16144 38.194995 13.462615
-27.712734 38.198758 13.529905
-27.19124 38.206313 13.512699
-26.756603 38.212497 13.526299
-26.241377 38.219366 13.524684
-25.74588 38.226645 13.514098
-25.321197 38.233731 13.507882
-24.782872 38.242366 13.467345
-24.290765 38.251456 13.416815
-23.798371 38.260687 13.363201
-23.254359 38.272202 13.259082
-22.7718 38.281087 13.213587
-22.262292 38.291428 13.13567
-21.728247 38.304616 12.994921
-21.170668 38.320515 12.793899
-20.64489 38.332641 12.676976
-20.125028 38.345292 12.548429
-19.548113 38.361136 12.349209
-18.976705 38.378574 12.114948
-18.411012 38.39501 11.903069
-17.841449 38.411915 11.680924
-17.258892 38.430512 11.421469
-16.647289 38.452424 11.088734
-15.997123 38.478728 10.658815
-15.399707 38.498942 10.364156
-14.740998 38.526151 9.9148164
-14.099037 38.550772 9.523009
-13.353406 38.586926 8.8762436
-12.666992 38.616244 8.3809411
-11.927952 38.651515 7.7543091
-11.06247 38.70111 6.8109822
-44.586193 37.899628 3.7285809
-44.405304 37.876893 4.3936349
-44.088457 37.860394 4.9170009
-43.675169 37.85703 5.1427851
-43.313596 37.845328 5.557342
-43.072883 37.829868 6.057126
-42.794418 37.811391 6.6252132
-42.331412 37.814274 6.7093503
-41.960049 37.804943 7.0701251
-41.703317 37.790954 7.5363009
-41.416273 37.778307 7.9722153
-40.987536 37.775058 8.1951534
-40.564924 37.770357 8.4511321
-40.282022 37.761103 8.8099893
-39.922431 37.752826 9.1468832
-39.486263 37.748311 9.3985898
-39.078612 37.742466 9.6803177
-38.829669 37.733123 10.041223
-38.43528 37.727349 10.321429
-38.000628 37.726041 10.500723
-37.616991 37.721198 10.759786
-37.284233 37.716839 11.008102
-36.790103 37.716676 11.161505
-36.391202 37.713975 11.372383
-36.072958 37.70965 11.619843
-35.664447 37.708141 11.803861
-35.177216 37.709076 11.932732
-34.816876 37.706904 12.13166
-34.417521 37.705217 12.319742
-33.904463 37.706006 12.452016
-33.566467 37.704747 12.630534
-33.172112 37.703965 12.798237
-32.715581 37.705544 12.912842
-32.266624 37.707072 13.02869
-31.871744 37.706193 13.198721
-31.370569 37.712697 13.202545
-30.936169 37.715089 13.299135
-30.572159 37.71612 13.426241
-30.050186 37.720211 13.48461
-29.617863 37.724596 13.536577
-29.184243 37.728921 13.589811
-28.638391 37.733387 13.639934
-28.23985 37.737224 13.704312
-27.8107 37.7414 13.761145
-27.306987 37.747175 13.782171
-26.852289 37.753414 13.792825
-26.345212 37.760455 13.785353
-25.844868 37.76763 13.775141
-25.414353 37.774712 13.767198
-24.894372 37.782602 13.741057
-24.405465 37.791397 13.694695
-23.912719 37.801061 13.628982
-23.352612 37.81138 13.548674
-22.893975 37.820585 13.493489
-22.388058 37.830528 13.421791
-21.833397 37.843857 13.274168
-21.297928 37.857197 13.126606
-20.773208 37.869353 13.005657
-20.225793 37.883494 12.84028
-19.675044 37.897717 12.673344
-19.121097 37.912887 12.485232
-18.550182 37.929747 12.259379
-17.97167 37.947867 12.005516
-17.382022 37.966341 11.743865
-16.806696 37.984058 11.499412
-16.165644 38.009424 11.083712
-15.569285 38.029358 10.78987
-14.90194 38.057305 10.316741
-14.257224 38.082007 9.916557
-13.526284 38.116116 9.3059381
-12.856625 38.143251 8.8518923
-12.121636 38.177695 8.23435
-11.370086 38.213938 7.5768689
-10.523512 38.261004 6.6776439
-9.6279085 38.31397 5.6466763
-44.97169 37.456006 3.4599181
-44.642873 37.441172 3.9497432
-44.455122 37.419453 4.5975661
-44.215307 37.396222 5.2799149
-43.803513 37.392467 5.5154646
-43.429192 37.384819 5.8402116
-43.128192 37.371218 6.3015032
-42.875793 37.356634 6.7852577
-42.471431 37.351329 7.0563313
-42.043712 37.34646 7.3173451
-41.759029 37.334103 7.7499808
-41.499656 37.321627 8.1850709
-41.120883 37.31551 8.4747169
-40.650059 37.312362 8.6962627
-40.347081 37.304502 9.0258606
-40.024057 37.29599 9.3701966
-39.601121 37.290122 9.6539818
-39.146584 37.284654 9.928748
-38.877208 37.277356 10.245261
-38.513944 37.271444 10.530217
-38.090497 37.268341 10.750748
-37.681583 37.264276 10.993498
-37.375484 37.260566 11.227898
-36.900219 37.258934 11.41501
-36.463346 37.25728 11.602655
-36.124032 37.254184 11.82318
-35.7664 37.252415 12.013456
-35.257146 37.25224 12.167358
-34.881756 37.250385 12.359594
-34.500714 37.248686 12.548354
-34.008663 37.248775 12.696367
-33.615809 37.248302 12.85726
-33.265091 37.247613 13.023151
-32.802124 37.248969 13.142325
-32.329869 37.250672 13.253622
-31.962562 37.251454 13.386099
-31.466633 37.255045 13.454442
-31.009777 37.257656 13.5453
-30.652706 37.259314 13.657882
-30.156203 37.262633 13.732724
-29.703122 37.266918 13.785711
-29.268574 37.271146 13.839934
-28.754724 37.275571 13.889796
-28.314717 37.279759 13.945114
-27.884768 37.284032 13.99869
-27.413163 37.28915 14.032822
-26.930735 37.295349 14.042659
-26.445376 37.30236 14.034031
-25.95401 37.309431 14.024263
-25.492789 37.316334 14.018359
-24.998175 37.323974 13.99567
-24.508743 37.332665 13.949344
-24.005536 37.342075 13.886669
-23.457682 37.35172 13.818832
-22.996316 37.36122 13.754372
-22.503912 37.371509 13.672169
-21.936914 37.383568 13.549874
-21.420671 37.396319 13.41193
-20.874346 37.409116 13.273205
-20.336779 37.422303 13.125727
-19.795062 37.435297 12.982748
-19.257838 37.448701 12.830554
-18.668087 37.467387 12.558592
-18.076394 37.485465 12.300748
-17.505474 37.502516 12.066441
-16.953407 37.517991 11.868048
-16.311549 37.543029 11.452761
-15.693685 37.565347 11.099617
-15.038935 37.591752 10.653876
-14.406295 37.614796 10.284678
-13.705468 37.644997 9.7532915
-13.04445 37.670717 9.3240133
-12.333595 37.701935 8.7702554
-11.675805 37.727196 8.3517591
-10.762027 37.781093 7.2849067
-9.9507514 37.824098 6.4652408
-45.480099 36.999077 3.4976481
-45.110848 36.991734 3.817644
-44.738989 36.984295 4.1398657
-44.504717 36.961593 4.8165186
-44.310011 36.941122 5.4410673
-43.935072 36.93065 5.8337031
-43.533172 36.926094 6.0888226
-43.189354 36.913574 6.5287682
-42.938497 36.899876 6.9959681
-42.606622 36.886893 7.4464991
-42.147852 36.889635 7.5322827
-41.805729 36.8778 7.9561016
-41.545123 36.865089 8.4003434
-41.227061 36.856286 8.7538166
-40.754955 36.85353 8.967068
-40.40518 36.847483 9.256673
-40.113717 36.839135 9.5995646
-39.714511 36.832493 9.9030314
-39.23713 36.827482 10.168514
-38.928308 36.821384 10.459372
-38.626425 36.815424 10.74686
-38.186871 36.81149 10.987567
-37.752744 36.808006 11.217877
-37.449982 36.804315 11.452985
-37.008256 36.802236 11.650817
-36.548365 36.801022 11.828652
-36.176767 36.798552 12.035453
-35.859749 36.796469 12.233379
-35.35137 36.79591 12.396155
-34.949984 36.794528 12.57802
-34.5673 36.792841 12.767021
-34.120057 36.792979 12.913767
-33.675399 36.793049 13.062302
-33.347569 36.792234 13.231114
-32.897472 36.793187 13.359237
-32.403681 36.79505 13.466367
-32.044999 36.796194 13.590202
-31.566788 36.798395 13.689556
-31.092137 36.801107 13.777399
-30.715331 36.803238 13.878591
-30.252485 36.806297 13.95841
-29.780462 36.810283 14.01698
-29.33486 36.814366 14.073333
-28.874081 36.818579 14.126827
-28.394859 36.822688 14.182873
-27.990783 36.826782 14.239282
-27.510349 36.831751 14.275392
-27.009055 36.837876 14.285332
-26.554894 36.844682 14.279449
-26.046397 36.851678 14.269281
-25.574934 36.85854 14.262309
-25.117226 36.866009 14.241492
-24.598375 36.874522 14.196735
-24.084358 36.883641 14.138252
-23.571627 36.893118 14.071487
-23.088934 36.902722 14.002105
-22.591004 36.912911 13.919315
-22.044379 36.924317 13.808638
-21.522773 36.936671 13.676167
-20.976579 36.9494 13.535503
-20.445559 36.962043 13.39677
-19.921545 36.974769 13.256285
-19.372771 36.988817 13.085689
-18.773695 37.006021 12.842664
-18.184243 37.024107 12.579557
-17.636128 37.039097 12.387807
-17.080586 37.054356 12.189988
-16.455632 37.077289 11.816092
-15.824357 37.100896 11.427199
-15.209747 37.122611 11.08169
-14.562988 37.147038 10.674402
-13.89757 37.173074 10.230291
-13.212547 37.201229 9.7379321
-12.538946 37.228074 9.2758071
-11.858135 37.255663 8.7968465
-11.025146 37.30011 7.9317931
-10.246821 37.338987 7.1947891
-9.3184067 37.394211 6.0834251
-45.858879 36.557484 3.1796652
-45.622919 36.534362 3.8728709
-45.248691 36.5275 4.1835587
-44.859651 36.522474 4.451117
-44.565078 36.504481 5.0233686
-44.382356 36.48543 5.6205122
-44.086557 36.465749 6.2324931
-43.650631 36.465026 6.3986722
-43.273341 36.455415 6.773809
-43.011382 36.441967 7.2389012
-42.724639 36.425941 7.7646449
-42.266022 36.428664 7.8500165
-41.881867 36.421455 8.1686741
-41.605715 36.409967 8.5877087
-41.323092 36.399893 8.9734476
-40.880218 36.395408 9.2280535
-40.457286 36.390897 9.4834128
-40.176049 36.383253 9.8121697
-39.812125 36.376446 10.121194
-39.33889 36.371596 10.384385
-38.972091 36.365874 10.668004
-38.707241 36.359776 10.960541
-38.284242 36.355708 11.205468
-37.828721 36.352634 11.42701
-37.49989 36.349062 11.660309
-37.11598 36.346663 11.866172
-36.612481 36.345579 12.041255
-36.231641 36.343347 12.243293
-35.934012 36.340926 12.449621
-35.457995 36.340263 12.614953
-35.033617 36.33935 12.786213
-34.647189 36.337722 12.974197
-34.213357 36.337826 13.121748
-33.730365 36.338449 13.25724
-33.411521 36.337845 13.421336
-32.985423 36.338467 13.556819
-32.483272 36.340225 13.665846
-32.114346 36.34109 13.795838
-31.664234 36.342677 13.908993
-31.185703 36.345381 13.9961
-30.777432 36.347676 14.092918
-30.359009 36.350217 14.183946
-29.85318 36.353923 14.247844
-29.416353 36.358189 14.298831
-28.969754 36.362469 14.34944
-28.458964 36.366589 14.403955
-28.068559 36.370523 14.462979
-27.607154 36.375232 14.50377
-27.092405 36.38114 14.516776
-26.656322 36.387786 14.512661
-26.125049 36.394853 14.499036
-25.645575 36.401719 14.489947
-25.219416 36.408868 14.474415
-24.675766 36.416989 14.436396
-24.180803 36.425773 14.382947
-23.683051 36.435109 14.31688
-23.170032 36.444694 14.245123
-22.67189 36.454745 14.162659
-22.158761 36.465898 14.054466
-21.616843 36.47789 13.92712
-21.076815 36.490291 13.790313
-20.544009 36.502674 13.65404
-20.028615 36.515076 13.517468
-19.459721 36.528926 13.347446
-18.875102 36.545862 13.105768
-18.31059 36.561701 12.88972
-17.753258 36.577165 12.682754
-17.198004 36.593139 12.463878
-16.586341 36.612578 12.1646
-15.950119 36.636792 11.754834
-15.365127 36.654942 11.486108
-14.722452 36.67878 11.085505
-14.086742 36.701541 10.710051
-13.370026 36.733083 10.131027
-12.712485 36.758136 9.7029414
-12.007186 36.788326 9.1557791
-11.247645 36.824461 8.4709208
-10.436861 36.866412 7.651621
-9.5699234 36.914349 6.6937939
-45.921285 36.099054 3.4082278
-45.724474 36.077905 4.0609743
-45.371167 36.065072 4.5158518
-44.980612 36.059014 4.8094676
-44.617761 36.047548 5.2316762
-44.420384 36.030155 5.7946537
-44.189703 36.013298 6.3451398
-43.764338 36.005843 6.6716908
-43.366469 35.99732 7.023681
-43.055646 35.985496 7.4540484
-42.807724 35.973441 7.8899348
-42.38585 35.96966 8.1293033
-41.954886 35.964381 8.4039485
-41.658416 35.955202 8.7716142
-41.38292 35.945881 9.1423672
-40.989015 35.939902 9.4336439
-40.519293 35.934608 9.7089112
-40.230244 35.92794 10.016534
-39.885703 35.921637 10.315659
-39.445028 35.916757 10.58104
-39.018091 35.911348 10.858737
-38.765594 35.90535 11.150708
-38.368125 35.901085 11.401401
-37.914913 35.89822 11.618895
-37.542086 35.894819 11.849163
-37.203211 35.892032 12.06481
-36.700394 35.890833 12.243038
-36.291193 35.888888 12.43868
-35.985012 35.886236 12.651341
-35.558365 35.885278 12.823842
-35.09872 35.884749 12.98611
-34.721639 35.883296 13.170354
-34.303959 35.8833 13.320252
-33.796676 35.884336 13.445706
-33.464924 35.884093 13.601511
-33.056106 35.884451 13.74298
-32.569282 35.886042 13.855427
-32.165915 35.886891 13.985572
-31.753838 35.888124 14.10661
-31.261388 35.890695 14.195955
-30.831879 35.892829 14.295883
-30.456228 35.894755 14.40067
-29.935131 35.898224 14.469074
-29.510643 35.902556 14.517107
-29.066466 35.906855 14.566075
-28.523084 35.911154 14.615079
-28.136816 35.915196 14.670403
-27.698662 35.919711 14.714328
-27.178276 35.925325 14.732688
-26.739268 35.931792 14.730754
-26.213814 35.938945 14.712892
-25.720311 35.945941 14.698818
-25.296355 35.952922 14.685128
-24.753315 35.96076 14.651447
-24.265345 35.969261 14.602205
-23.78048 35.978325 14.539625
-23.241809 35.987716 14.469594
-22.772521 35.997454 14.391451
-22.255687 36.008194 14.289973
-21.712309 36.019713 14.170206
-21.173028 36.03173 14.038772
-20.644836 36.043849 13.905116
-20.125421 36.055896 13.773322
-19.566212 36.069084 13.614803
-19.007854 36.083058 13.437911
-18.433688 36.099769 13.196736
-17.879037 36.115166 12.986668
-17.308805 36.13225 12.737096
-16.710989 36.150876 12.451518
-16.082561 36.171801 12.1118
-15.516846 36.188312 11.876313
-14.858152 36.213674 11.433
-14.218508 36.236707 11.044505
-13.518902 36.266148 10.505632
-12.863569 36.290791 10.079992
-12.124784 36.32433 9.445346
-11.434539 36.352679 8.9330329
-10.615121 36.39498 8.0932435
-9.7729061 36.439631 7.198656
-8.9724632 36.479738 6.4112348
-46.23444 35.661414 2.99179
-45.968026 35.641368 3.624453
-45.783803 35.621163 4.26092
-45.491304 35.602551 4.858919
-45.095909 35.597336 5.1339148
-44.691261 35.590008 5.4598348
-44.444889 35.574473 5.9833149
-44.244509 35.557948 6.5306639
-43.858893 35.548557 6.9061881
-43.451786 35.540793 7.2423858
-43.107633 35.531294 7.6203961
-42.869039 35.521045 8.0163423
-42.506579 35.51342 8.3491793
-42.029999 35.506669 8.6610271
-41.710559 35.49901 8.9944592
-41.445564 35.491209 9.3314135
-41.092396 35.484634 9.639035
-40.596917 35.478905 9.926145
-40.279202 35.472825 10.221702
-39.967384 35.466954 10.512284
-39.535772 35.462253 10.774641
-39.073367 35.457302 11.043122
-38.81032 35.451528 11.331364
-38.435582 35.447095 11.587438
-37.997529 35.444252 11.80503
-37.587985 35.440989 12.032988
-37.278976 35.437837 12.258308
-36.797181 35.436351 12.443583
-36.36495 35.43476 12.631528
-36.038164 35.432115 12.844792
-35.652418 35.430875 13.024136
-35.160601 35.4307 13.178159
-34.791697 35.4295 13.356707
-34.390505 35.429273 13.512043
-33.87611 35.430435 13.634169
-33.519909 35.430435 13.7841
-33.11532 35.43045 13.933841
-32.663807 35.431862 14.049977
-32.225922 35.43314 14.169496
-31.839579 35.434481 14.287464
-31.32673 35.436895 14.380019
-30.883299 35.438914 14.481855
-30.524321 35.440646 14.590662
-30.009303 35.443932 14.662478
-29.581254 35.447951 14.716594
-29.149001 35.451945 14.771566
-28.599182 35.45624 14.819431
-28.202858 35.46036 14.871461
-27.782612 35.464779 14.916518
-27.262906 35.470143 14.938958
-26.808966 35.476435 14.939426
-26.306339 35.483524 14.920921
-25.805729 35.490572 14.903353
-25.365604 35.497546 14.88776
-24.831552 35.505313 14.853333
-24.342181 35.513766 14.802637
-23.860484 35.522681 14.741018
-23.307409 35.531845 14.673606
-22.847135 35.541147 14.603116
-22.34586 35.55122 14.514206
-21.798661 35.562146 14.404963
-21.269264 35.573751 14.279853
-20.74703 35.585679 14.147216
-20.207709 35.597578 14.015236
-19.67 35.610206 13.866092
-19.122876 35.624187 13.684829
-18.547367 35.639569 13.470379
-17.96343 35.65561 13.240503
-17.388863 35.672344 12.994081
-16.831499 35.69033 12.718117
-16.20831 35.709947 12.403461
-15.611089 35.728998 12.102495
-14.976925 35.750825 11.735717
-14.347967 35.772074 11.382784
-13.658251 35.800356 10.862844
-13.008812 35.823997 10.453478
-12.284238 35.855558 9.8560173
-11.61758 35.881013 9.4041806
-10.785683 35.92407 8.5338093
-10.013709 35.960719 7.8162178
-9.1554252 36.006395 6.8844827
-46.764318 35.201907 3.1030718
-46.36322 35.19823 3.3422571
-46.017792 35.184365 3.8300669
-45.826845 35.165738 4.434207
-45.601673 35.148319 5.008752
-45.216922 35.13971 5.3681368
-44.794172 35.131417 5.7198363
-44.484604 35.117764 6.202098
-44.297092 35.102271 6.729289
-43.979719 35.091151 7.14981
-43.54139 35.08446 7.4621271
-43.170419 35.076197 7.8128939
-42.923484 35.066552 8.1972862
-42.606786 35.057604 8.5645337
-42.115021 35.050161 8.8952929
-41.768853 35.043065 9.2175053
-41.512765 35.036001 9.5388312
-41.187514 35.029598 9.8442072
-40.682688 35.023976 10.130364
-40.325008 35.018176 10.420924
-40.040269 35.012394 10.711197
-39.628603 35.00779 10.972525
-39.142389 35.003267 11.232099
-38.850907 34.997739 11.51602
-38.518418 34.993142 11.777318
-38.075168 34.990307 11.99577
-37.647728 34.987193 12.221048
-37.345268 34.983799 12.453174
-36.888223 34.982037 12.645639
-36.445741 34.980722 12.827181
-36.097068 34.978282 13.03608
-35.745371 34.9769 13.21952
-35.225172 34.976974 13.367495
-34.846503 34.976069 13.53915
-34.461122 34.975547 13.701615
-33.959828 34.976609 13.82586
-33.573728 34.976751 13.972295
-33.207752 34.976389 14.131029
-32.747466 34.977611 14.251417
-32.282155 34.979373 14.358744
-31.915456 34.981001 14.469371
-31.406153 34.983277 14.564396
-30.944666 34.985412 14.6628
-30.584464 34.987412 14.7646
-30.087456 34.990605 14.837573
-29.645989 34.994356 14.896963
-29.207243 34.998126 14.956156
-28.682971 35.002269 15.006308
-28.276844 35.006374 15.05737
-27.84468 35.010718 15.102932
-27.345119 35.015885 15.128518
-26.876131 35.021972 15.1319
-26.385229 35.028808 15.117249
-25.886953 35.035726 15.100795
-25.430333 35.042644 15.084383
-24.920819 35.050299 15.050231
-24.422087 35.058714 14.997828
-23.932384 35.067528 14.935944
-23.384793 35.076503 14.870324
-22.91796 35.085425 14.806028
-22.431623 35.094883 14.72886
-21.882998 35.105344 14.627754
-21.372043 35.116695 14.50508
-20.818297 35.128526 14.370949
-20.280868 35.140291 14.238711
-19.75758 35.152551 14.094656
-19.227793 35.166118 13.918987
-18.651232 35.180949 13.713078
-18.047685 35.196729 13.484581
-17.488362 35.21315 13.240641
-16.947726 35.230424 12.976414
-16.322402 35.249058 12.679373
-15.706038 35.268828 12.355331
-15.087462 35.289053 12.020404
-14.465862 35.310082 11.666414
-13.806383 35.333775 11.248466
-13.147589 35.358362 10.80914
-12.459978 35.385594 10.306213
-11.788088 35.411257 9.8414794
-10.984382 35.450924 9.0396954
-10.242891 35.484035 8.3962446
-9.3425615 35.5336 7.356775
-47.152203 34.762241 2.7304671
-46.86673 34.745533 3.2932041
-46.496801 34.736194 3.673424
-46.098303 34.727287 4.0431051
-45.878224 34.711596 4.5803217
-45.679361 34.694821 5.1445169
-45.317363 34.682658 5.594302
-44.907615 34.672778 5.987775
-44.535071 34.660835 6.4321351
-44.339668 34.647439 6.9124307
-44.083208 34.636449 7.3332419
-43.644007 34.628231 7.6853326
-43.250885 34.620013 8.0375168
-42.963691 34.610935 8.4109493
-42.680897 34.602422 8.7702684
-42.207133 34.595344 9.0942048
-41.83045 34.588642 9.4088782
-41.560795 34.581702 9.7293118
-41.25822 34.575183 10.039409
-40.776182 34.569602 10.326514
-40.379185 34.564119 10.611129
-40.100027 34.558464 10.899807
-39.711125 34.553841 11.163183
-39.218761 34.549624 11.416458
-38.888309 34.544367 11.695451
-38.587842 34.539569 11.963134
-38.154889 34.536634 12.18489
-37.719432 34.533773 12.40502
-37.400275 34.530398 12.637503
-36.963124 34.528479 12.834343
-36.51353 34.527421 13.010038
-36.147859 34.525257 13.212943
-35.818409 34.523658 13.401967
-35.299599 34.523685 13.551032
-34.905534 34.522977 13.718326
-34.51547 34.522161 13.888213
-34.047391 34.522999 14.017368
-33.61699 34.523383 14.157753
-33.283405 34.522943 14.318666
-32.825921 34.524079 14.440652
-32.339964 34.526121 14.540566
-31.978413 34.527808 14.649045
-31.480897 34.53004 14.744453
-31.005962 34.532398 14.836683
-30.632041 34.534585 14.933364
-30.159712 34.537654 15.008202
-29.703373 34.541357 15.067693
-29.250463 34.54515 15.124995
-28.765999 34.5493 15.173624
-28.326236 34.553546 15.220072
-27.889557 34.55786 15.264833
-27.413489 34.562811 15.294143
-26.92646 34.568619 15.30251
-26.458105 34.575071 15.29512
-25.965506 34.581766 15.281931
-25.481127 34.588594 15.265437
-24.996307 34.596089 15.232797
-24.50254 34.604378 15.180815
-23.993433 34.613028 15.120204
-23.471499 34.621809 15.056469
-22.991991 34.6305 14.99507
-22.509983 34.639545 14.92499
-21.959832 34.649637 14.829491
-21.456277 34.660671 14.711079
-20.900747 34.672178 14.581215
-20.360989 34.683656 14.452236
-19.850923 34.695622 14.31139
-19.31731 34.708876 14.139105
-18.735366 34.723334 13.937699
-18.137505 34.738638 13.715917
-17.586375 34.754485 13.480799
-17.039441 34.771111 13.22698
-16.433351 34.789171 12.938263
-15.80568 34.808449 12.619921
-15.20475 34.827877 12.298184
-14.585627 34.84787 11.962819
-13.954459 34.869235 11.594241
-13.266436 34.895189 11.113835
-12.600914 34.91937 10.677122
-11.926364 34.945529 10.192015
-11.172147 34.979783 9.5100142
-10.393394 35.016488 8.7683965
-9.5366919 35.061128 7.8336345
-8.6968187 35.103951 6.9436091
-47.200404 34.308471 2.8551109
-46.957001 34.290068 3.465591
-46.619236 34.278635 3.901538
-46.189483 34.2694 4.2820629
-45.908406 34.255873 4.770142
-45.71997 34.240093 5.3148279
-45.40832 34.226701 5.7993378
-44.991981 34.216169 6.2122759
-44.589389 34.205321 6.6330563
-44.374548 34.193184 7.0861722
-44.159364 34.18218 7.5107343
-43.738656 34.17344 7.8785419
-43.339852 34.165334 8.2306452
-43.006029 34.156714 8.5952552
-42.740244 34.148488 8.9503527
-42.305864 34.141544 9.2732487
-41.887254 34.135122 9.5830662
-41.602969 34.12829 9.9030053
-41.323226 34.121614 10.219084
-40.883213 34.116004 10.508546
-40.440053 34.110807 10.787749
-40.151805 34.105327 11.073937
-39.779443 34.100663 11.339772
-39.299693 34.096736 11.587181
-38.928211 34.091894 11.85748
-38.658828 34.086961 12.130043
-38.236614 34.083843 12.357302
-37.787776 34.081347 12.568985
-37.44337 34.07824 12.796056
-37.044432 34.076262 12.994931
-36.55817 34.075491 13.163686
-36.176745 34.07361 13.360302
-35.867766 34.071721 13.557117
-35.374761 34.071509 13.712031
-34.962181 34.070875 13.87746
-34.574114 34.069799 14.054081
-34.125686 34.070399 14.189049
-33.665974 34.071103 14.321255
-33.335838 34.070842 14.477807
-32.895777 34.071963 14.599753
-32.399993 34.074076 14.697187
-32.024827 34.075562 14.810256
-31.549476 34.077581 14.910077
-31.075979 34.08001 14.999872
-30.682467 34.082111 15.097789
-30.24081 34.084864 15.179543
-29.761938 34.088507 15.239448
-29.307654 34.092527 15.289864
-28.851185 34.096912 15.331176
-28.363122 34.101363 15.371055
-27.944289 34.105632 15.415658
-27.477344 34.110371 15.448548
-26.980635 34.115911 15.461642
-26.537646 34.122001 15.461192
-26.024986 34.128491 15.45091
-25.544297 34.135185 15.435555
-25.090413 34.142479 15.40543
-24.566967 34.150634 15.354268
-24.054071 34.159157 15.293847
-23.557417 34.16783 15.229932
-23.056364 34.176361 15.169563
-22.570712 34.185067 15.105107
-22.038782 34.194745 15.016543
-21.533497 34.205288 14.906817
-20.97996 34.216311 14.785189
-20.441374 34.227587 14.65746
-19.94155 34.239478 14.514718
-19.382259 34.252569 14.342318
-18.803364 34.266658 14.145352
-18.22754 34.281403 13.932353
-17.680431 34.296688 13.706067
-17.133083 34.312777 13.46016
-16.528547 34.330264 13.179764
-15.899461 34.348864 12.872075
-15.315694 34.367479 12.564196
-14.700114 34.386527 12.245782
-14.080854 34.405749 11.923385
-13.374925 34.43335 11.393876
-12.7098 34.458671 10.921048
-12.026408 34.484588 10.433843
-11.319642 34.513053 9.8837893
-10.54633 34.548853 9.1528166
-9.7207939 34.589764 8.2958778
-8.9005856 34.630056 7.4546873
-47.236796 33.855103 2.9731551
-47.035262 33.835903 3.6099579
-46.721432 33.821989 4.1125598
-46.299245 33.810996 4.540856
-45.94443 33.798557 5.00585
-45.7462 33.783969 5.5252444
-45.488104 33.770975 6.0043149
-45.078557 33.760864 6.4099086
-44.652976 33.750962 6.810314
-44.397805 33.73953 7.249386
-44.207644 33.728484 7.678621
-43.814175 33.719689 8.0508729
-43.396391 33.711914 8.3970847
-43.043252 33.7037 8.754476
-42.784125 33.695493 9.1116223
-42.404227 33.688478 9.4385073
-41.94282 33.682287 9.7446395
-41.63067 33.675689 10.060959
-41.364975 33.669028 10.378767
-40.971581 33.663481 10.668467
-40.491406 33.658531 10.94303
-40.195767 33.653192 11.227573
-39.835207 33.64845 11.496818
-39.386883 33.644706 11.740773
-38.958501 33.640299 12.001722
-38.701415 33.635367 12.275903
-38.297009 33.632055 12.509138
-37.8397 33.629838 12.71459
-37.477501 33.626962 12.936777
-37.119225 33.624839 13.139887
-36.611855 33.624247 13.304366
-36.215648 33.622719 13.492616
-35.910342 33.6207 13.693217
-35.436206 33.620361 13.851376
-35.009343 33.619963 14.011261
-34.634184 33.618793 14.19054
-34.198612 33.619177 14.330652
-33.705119 33.620134 14.456348
-33.375312 33.620004 14.609605
-32.95324 33.62095 14.735585
-32.457549 33.622939 14.835349
-32.07032 33.624101 14.956091
-31.616509 33.625644 15.067257
-31.147994 33.627961 15.158955
-30.737815 33.630017 15.257421
-30.324252 33.632386 15.347997
-29.817821 33.635847 15.410944
-29.375799 33.640109 15.454024
-28.927438 33.644725 15.488133
-28.408909 33.649221 15.525451
-28.007589 33.653315 15.57277
-27.550507 33.657882 15.608585
-27.035933 33.663288 15.623243
-26.601529 33.669204 15.62495
-26.084265 33.675589 15.615166
-25.602892 33.682093 15.602377
-25.169153 33.689078 15.577788
-24.623279 33.696994 15.529707
-24.120234 33.705398 15.469512
-23.635635 33.714011 15.404177
-23.118317 33.722457 15.343173
-22.626325 33.73092 15.281921
-22.127198 33.740278 15.198271
-21.60565 33.75046 15.094143
-21.055968 33.7612 14.975888
-20.51541 33.772461 14.84473
-20.019952 33.784352 14.698259
-19.446565 33.797212 14.52717
-18.874681 33.81088 14.336149
-18.317539 33.825099 14.131441
-17.761452 33.839915 13.911897
-17.212132 33.855535 13.672536
-16.611869 33.872418 13.401456
-15.986139 33.890355 13.104327
-15.418789 33.908386 12.804837
-14.79938 33.927035 12.490036
-14.175295 33.947978 12.118238
-13.477023 33.973008 11.6441
-12.819477 33.998348 11.162419
-12.114194 34.023542 10.684774
-11.449902 34.049049 10.199429
-10.684187 34.083299 9.4954651
-9.9168858 34.117725 8.7875156
-9.082824 34.158751 7.9145897
-8.1613408 34.208421 6.8257954
-47.447108 33.420183 2.470324
-47.273386 33.400841 3.1174091
-47.094904 33.381324 3.769177
-46.802327 33.365685 4.3208669
-46.409931 33.353984 4.7710463
-46.001486 33.34254 5.214572
-45.778487 33.328891 5.7147732
-45.550346 33.316061 6.1940071
-45.164302 33.30604 6.6006491
-44.744104 33.296864 6.9858022
-44.421587 33.286281 7.4067912
-44.235121 33.275306 7.8381617
-43.903828 33.266332 8.2178842
-43.453041 33.258893 8.55806
-43.077566 33.251129 8.90671
-42.82172 33.24296 9.2655998
-42.486776 33.235915 9.5957266
-42.006623 33.229981 9.897192
-41.667785 33.223752 10.206206
-41.4024 33.217333 10.520133
-41.032478 33.211954 10.807413
-40.534187 33.207253 11.077278
-40.226594 33.202045 11.360115
-39.890185 33.197224 11.633185
-39.454758 33.19354 11.876856
-39.003145 33.189397 12.132454
-38.738512 33.18451 12.407115
-38.34933 33.181012 12.64607
-37.914056 33.178851 12.850854
-37.5157 33.176102 13.070793
-37.181709 33.173718 13.281344
-36.676414 33.172991 13.449389
-36.266379 33.171773 13.630168
-35.954408 33.169787 13.830638
-35.510994 33.169378 13.990819
-35.044007 33.16934 14.141419
-34.677245 33.16829 14.318013
-34.261875 33.168502 14.46235
-33.7497 33.169605 14.583959
-33.415858 33.169482 14.736881
-33.007376 33.170033 14.872773
-32.514594 33.17178 14.978028
-32.11036 33.172779 15.102562
-31.684954 33.173971 15.222298
-31.205021 33.176299 15.312769
-30.779488 33.178512 15.406414
-30.395633 33.180725 15.500222
-29.873574 33.184122 15.563665
-29.439328 33.188462 15.603345
-28.994787 33.193078 15.635828
-28.455745 33.197414 15.675543
-28.069699 33.201206 15.729332
-27.623579 33.205498 15.770489
-27.094411 33.210766 15.78676
-26.659783 33.216648 15.787406
-26.142512 33.223029 15.775442
-25.656329 33.229373 15.764641
-25.23331 33.235967 15.747461
-24.685794 33.243556 15.705118
-24.186427 33.251785 15.646506
-23.70809 33.260357 15.579245
-23.173342 33.268865 15.513911
-22.695221 33.277314 15.449944
-22.193985 33.286579 15.365475
-21.665782 33.296619 15.261346
-21.124426 33.307251 15.142411
-20.584775 33.318453 15.009101
-20.082396 33.330116 14.864037
-19.514114 33.342555 14.699398
-18.947734 33.35578 14.514982
-18.403186 33.369608 14.31542
-17.845001 33.384047 14.100495
-17.2794 33.399213 13.867354
-16.694384 33.41547 13.606464
-16.085753 33.432793 13.318807
-15.506043 33.450622 13.018361
-14.881311 33.469301 12.696644
-14.262988 33.490136 12.320437
-13.565491 33.513509 11.879845
-12.926009 33.537917 11.413346
-12.228986 33.562072 10.953457
-11.585264 33.585198 10.519955
-10.820483 33.618718 9.8230364
-10.101302 33.647794 9.23914
-9.2578735 33.689063 8.3461432
-8.3211344 33.73944 7.2226264
-47.498263 32.963123 2.6851981
-47.30159 32.946642 3.2644391
-47.131639 32.927413 3.915369
-46.868376 32.911159 4.488457
-46.505816 32.899074 4.9528782
-46.069302 32.888122 5.3876573
-45.812864 32.875039 5.8778538
-45.607205 32.862194 6.3618449
-45.244846 32.852042 6.7753149
-44.827409 32.843322 7.1517429
-44.450242 32.833438 7.5583309
-44.255517 32.822497 7.9924893
-43.976422 32.813247 8.3824899
-43.522615 32.806013 8.7201819
-43.128945 32.7987 9.0595363
-42.868685 32.790683 9.417221
-42.555708 32.783598 9.7509464
-42.068493 32.77785 10.04953
-41.710712 32.772031 10.350145
-41.445784 32.765932 10.658012
-41.10257 32.760702 10.943236
-40.595017 32.756247 11.208245
-40.254377 32.751314 11.485686
-39.937567 32.746524 11.759554
-39.51598 32.742947 12.001838
-39.052833 32.739114 12.250711
-38.776588 32.734338 12.524136
-38.391288 32.730695 12.768276
-37.962053 32.728516 12.974234
-37.557527 32.725826 13.193539
-37.236754 32.723133 13.41288
-36.73945 32.722067 13.59004
-36.31686 32.72095 13.768553
-35.998046 32.718942 13.970257
-35.59481 32.718364 14.134821
-35.091966 32.718658 14.276872
-34.720153 32.717854 14.44753
-34.320265 32.717913 14.595611
-33.803176 32.719091 14.714949
-33.456888 32.719001 14.867119
-33.062514 32.719079 15.014974
-32.592159 32.720555 15.126728
-32.161582 32.721646 15.248352
-31.752884 32.722779 15.369114
-31.25757 32.72526 15.454922
-30.834712 32.727785 15.5396
-30.459382 32.730162 15.628275
-29.922351 32.73372 15.686458
-29.484881 32.738078 15.723987
-29.051226 32.742541 15.758945
-28.502179 32.746583 15.804889
-28.117351 32.749958 15.867958
-27.682887 32.753885 15.917083
-27.151579 32.758944 15.936892
-26.716692 32.764774 15.936861
-26.199821 32.771163 15.922436
-25.703592 32.777395 15.912332
-25.289511 32.783642 15.901836
-24.751151 32.790862 15.866257
-24.253555 32.798868 15.810607
-23.773065 32.807343 15.742887
-23.223393 32.815862 15.674096
-22.761064 32.824304 15.607543
-22.262087 32.833457 15.52268
-21.717282 32.843377 15.418073
-21.178357 32.853927 15.297543
-20.658296 32.864984 15.163949
-20.137118 32.876305 15.023756
-19.580372 32.888241 14.867699
-19.028692 32.901105 14.688126
-18.479217 32.914706 14.489433
-17.905656 32.928888 14.276223
-17.336868 32.943655 14.047987
-16.782854 32.95932 13.796717
-16.176332 32.976065 13.517842
-15.572892 32.993853 13.212322
-14.951762 33.012532 12.884181
-14.345792 33.032313 12.527856
-13.673549 33.054158 12.118539
-13.030573 33.077355 11.67464
-12.350239 33.100743 11.226099
-11.711471 33.12546 10.743609
-10.940354 33.154838 10.141704
-10.246489 33.182133 9.5933685
-9.4128912 33.221662 8.7308967
-8.5285148 33.26622 7.739563
-47.965039 32.511059 2.6249001
-47.569994 32.506086 2.9056631
-47.330633 32.492373 3.4175881
-47.155578 32.474719 4.0337136
-46.941623 32.458484 4.6122991
-46.598542 32.445766 5.0977268
-46.148367 32.434594 5.5421661
-45.849256 32.421723 6.0313293
-45.654718 32.408897 6.519401
-45.318529 32.398682 6.9383611
-44.892274 32.390323 7.3083239
-44.498876 32.381002 7.7035963
-44.290099 32.370165 8.1387665
-44.03967 32.360666 8.5388497
-43.595873 32.353409 8.8794725
-43.19185 32.346439 9.2124473
-42.910323 32.33869 9.5660072
-42.616654 32.331586 9.9026207
-42.128477 32.325923 10.201026
-41.746527 32.320414 10.495548
-41.478384 32.314524 10.800023
-41.158356 32.309316 11.086621
-40.657338 32.305054 11.348106
-40.284008 32.300521 11.616704
-39.983749 32.295879 11.888492
-39.569888 32.292418 12.128742
-39.086409 32.28908 12.36607
-38.797922 32.284621 12.632782
-38.457084 32.280907 12.880019
-38.005713 32.27878 13.085419
-37.582975 32.276195 13.302852
-37.274461 32.273293 13.528669
-36.798228 32.271978 13.712819
-36.365166 32.270908 13.890505
-36.031663 32.268822 14.094916
-35.658583 32.268014 14.265794
-35.138305 32.268506 14.402461
-34.758143 32.267928 14.567392
-34.367647 32.267794 14.720435
-33.85086 32.268938 14.840315
-33.486813 32.268919 14.990604
-33.11814 32.268662 15.147345
-32.655042 32.269944 15.263536
-32.198913 32.271232 15.379651
-31.812187 32.27248 15.496798
-31.307019 32.275178 15.576011
-30.873735 32.277964 15.652975
-30.506631 32.280486 15.737051
-29.964838 32.284141 15.791306
-29.511733 32.288458 15.828382
-29.094914 32.292742 15.866328
-28.553849 32.296546 15.916975
-28.163085 32.299664 15.985779
-27.735541 32.303315 16.04067
-27.208488 32.308143 16.064547
-26.763901 32.313846 16.065892
-26.255144 32.32016 16.051145
-25.752379 32.326307 16.040979
-25.335815 32.332316 16.03445
-24.808593 32.339215 16.004805
-24.310829 32.34693 15.95363
-23.832016 32.355145 15.889771
-23.275359 32.363441 15.823817
-22.820126 32.37161 15.761361
-22.327509 32.380451 15.681397
-21.781536 32.390215 15.577422
-21.245359 32.400765 15.45294
-20.722752 32.411795 15.31604
-20.186637 32.422837 15.179165
-19.642677 32.434292 15.031563
-19.102916 32.446731 14.858254
-18.549671 32.460071 14.661678
-17.962119 32.47403 14.449107
-17.393179 32.488499 14.223499
-16.854184 32.503691 13.979077
-16.255563 32.519922 13.707515
-15.644263 32.537401 13.403752
-15.021954 32.555666 13.079687
-14.426668 32.574486 12.741255
-13.772749 32.595243 12.352585
-13.120778 32.617699 11.919808
-12.455228 32.640602 11.475469
-11.805343 32.665212 10.987019
-11.059543 32.693025 10.415479
-10.339178 32.723486 9.7748628
-9.5319021 32.758642 9.0123676
-8.7197749 32.795336 8.2098981
-48.065953 32.057092 2.767616
-47.645189 32.048944 3.1353449
-47.36685 32.037094 3.6024461
-47.178049 32.021925 4.1583981
-46.996653 32.006551 4.719832
-46.673153 31.993434 5.2205957
-46.228919 31.981818 5.6810724
-45.88436 31.969063 6.1719124
-45.686543 31.956293 6.6632801
-45.393985 31.945929 7.0899418
-44.961613 31.937815 7.4563497
-44.551507 31.929124 7.8380695
-44.321664 31.918649 8.2676224
-44.087462 31.90906 8.6734928
-43.653999 31.901784 9.0174116
-43.242887 31.895097 9.3453322
-42.932246 31.887669 9.6931178
-42.662688 31.880599 10.03155
-42.195454 31.874917 10.332461
-41.79357 31.869579 10.624405
-41.508466 31.863779 10.928706
-41.205581 31.858455 11.220207
-40.729795 31.854238 11.482089
-40.328283 31.849999 11.744631
-40.029626 31.845383 12.017027
-39.621837 31.841882 12.259889
-39.127927 31.838931 12.487944
-38.823735 31.834874 12.745597
-38.514093 31.831168 12.993943
-38.049605 31.829119 13.198067
-37.602182 31.826761 13.410366
-37.303176 31.823859 13.637173
-36.856502 31.822469 13.823725
-36.406543 31.821545 13.997935
-36.051616 31.819478 14.202597
-35.695709 31.818449 14.379593
-35.175838 31.818997 14.514529
-34.793772 31.818584 14.675282
-34.406409 31.818263 14.833616
-33.901166 31.819284 14.95616
-33.51922 31.819366 15.103812
-33.172283 31.818938 15.264934
-32.710511 31.820137 15.38297
-32.238677 31.821731 15.490402
-31.858534 31.823296 15.598758
-31.347468 31.82612 15.673615
-30.897658 31.82891 15.749438
-30.542409 31.831305 15.835827
-30.014779 31.834789 15.893405
-29.556662 31.838913 15.933942
-29.137505 31.843007 15.975466
-28.60358 31.846792 16.025113
-28.195307 31.850033 16.089467
-27.772008 31.853635 16.144088
-27.257305 31.85825 16.172184
-26.805256 31.863701 16.1779
-26.309695 31.869818 16.166173
-25.801791 31.875845 16.156845
-25.370779 31.88169 16.152505
-24.860831 31.88831 16.127605
-24.365874 31.895757 16.080821
-23.881931 31.903669 16.021986
-23.325615 31.911671 15.960647
-22.882301 31.919528 15.903486
-22.395732 31.92807 15.828196
-21.839304 31.937744 15.72302
-21.308491 31.948362 15.593004
-20.763878 31.959392 15.45201
-20.233111 31.970158 15.318329
-19.707439 31.981137 15.179017
-19.171851 31.993087 15.014146
-18.614233 32.005996 14.824096
-18.027075 32.019597 14.615871
-17.471002 32.033686 14.394906
-16.927954 32.048419 14.156937
-16.32244 32.06417 13.892349
-15.715297 32.081097 13.59678
-15.110435 32.098666 13.284361
-14.506748 32.116815 12.956855
-13.866338 32.137044 12.574552
-13.199003 32.159165 12.142369
-12.542793 32.18177 11.697665
-11.878555 32.205667 11.218966
-11.170484 32.23275 10.656288
-10.435007 32.263558 9.9954959
-9.6269874 32.296639 9.2749773
-8.8624172 32.329738 8.55421
-7.9495097 32.37544 7.5008669
-48.148673 31.602748 2.9249419
-47.726016 31.59295 3.3405768
-47.402408 31.582147 3.7836239
-47.201868 31.568676 4.2991783
-47.030017 31.554036 4.8464979
-46.729151 31.540845 5.3541423
-46.316672 31.529199 5.8198827
-45.916665 31.516943 6.3020391
-45.7054 31.504482 6.789838
-45.450516 31.493932 7.2254674
-45.026526 31.4859 7.5926892
-44.596341 31.477876 7.9596406
-44.335999 31.467956 8.3780736
-44.122394 31.458415 8.7862369
-43.706346 31.45114 9.1328016
-43.288384 31.444754 9.4550746
-42.952675 31.43771 9.7953212
-42.696327 31.430725 10.133915
-42.257145 31.425066 10.436591
-41.820802 31.419944 10.724629
-41.523345 31.414315 11.026426
-41.236129 31.408902 11.322269
-40.788852 31.404581 11.588655
-40.35202 31.400386 11.851509
-40.061653 31.395651 12.128924
-39.673101 31.391904 12.379733
-39.181646 31.389054 12.606137
-38.851719 31.385239 12.858802
-38.563035 31.381462 13.110434
-38.107459 31.379338 13.31722
-37.64553 31.377181 13.525099
-37.335817 31.374339 13.7514
-36.909878 31.37286 13.940853
-36.457885 31.372119 14.110405
-36.083359 31.37026 14.310215
-35.736084 31.36915 14.489819
-35.216413 31.369738 14.623553
-34.830108 31.369563 14.777826
-34.446906 31.369224 14.936704
-33.951811 31.3702 15.060019
-33.539098 31.370468 15.202558
-33.200838 31.369999 15.365141
-32.747101 31.371053 15.48651
-32.266762 31.372927 15.58576
-31.89813 31.374756 15.686341
-31.383533 31.377375 15.765686
-30.919239 31.379979 15.845506
-30.569207 31.382293 15.933223
-30.060891 31.385515 15.996465
-29.603345 31.389382 16.042398
-29.176781 31.393327 16.086292
-28.656188 31.397175 16.132787
-28.229896 31.400658 16.189381
-27.79742 31.404339 16.240684
-27.303142 31.408768 16.271798
-26.840458 31.413984 16.281903
-26.354805 31.419858 16.274353
-25.852408 31.425733 16.26678
-25.403989 31.431444 16.263776
-24.910655 31.437829 16.242836
-24.425713 31.445056 16.199153
-23.929119 31.45276 16.142862
-23.369396 31.460598 16.082898
-22.926925 31.468309 16.026754
-22.448594 31.476635 15.953887
-21.880629 31.486157 15.849244
-21.360435 31.49664 15.718717
-20.805243 31.507511 15.577883
-20.285217 31.518046 15.446297
-19.765951 31.528778 15.309568
-19.226523 31.540491 15.146689
-18.660014 31.553105 14.959536
-18.079849 31.566318 14.756667
-17.530506 31.579889 14.544269
-16.986215 31.594034 14.316588
-16.386859 31.609192 14.061876
-15.777247 31.625502 13.77651
-15.183422 31.642321 13.477619
-14.582451 31.659771 13.161958
-13.94884 31.679537 12.78445
-13.273885 31.701401 12.350782
-12.631828 31.723794 11.903211
-11.953027 31.747229 11.427973
-11.256862 31.773422 10.879125
-10.523787 31.803284 10.232007
-9.7218817 31.835608 9.5192837
-8.9680124 31.869926 8.7534366
-8.0802348 31.909853 7.8376327
-48.224743 31.150706 3.0233969
-47.812812 31.13935 3.486027
-47.439117 31.128125 3.944756
-47.220264 31.114973 4.4568521
-47.047678 31.100785 4.99732
-46.762347 31.087985 5.4994118
-46.37944 31.076843 5.9557273
-45.958877 31.065498 6.4175208
-45.730595 31.053619 6.8940679
-45.498811 31.042909 7.338258
-45.083772 31.034708 7.713377
-44.643391 31.027092 8.0721285
-44.344466 31.017708 8.4796604
-44.142637 31.008199 8.8906772
-43.750335 31.000819 9.2429882
-43.326784 30.994706 9.5602442
-42.980947 30.988075 9.8918285
-42.726927 30.981245 10.228761
-42.309124 30.975698 10.530535
-41.852258 30.970855 10.812949
-41.540548 30.965446 11.110743
-41.260336 30.960001 11.409722
-40.845726 30.955506 11.682427
-40.382922 30.951273 11.948003
-40.087286 30.946493 12.228567
-39.7145 30.942574 12.485514
-39.243523 30.939763 12.711985
-38.870383 30.936163 12.960201
-38.587701 30.932279 13.216159
-38.148336 30.929947 13.429623
-37.688106 30.927896 13.635243
-37.365425 30.925067 13.862289
-36.964308 30.923385 14.057827
-36.494523 30.922793 14.22368
-36.116857 30.921258 14.415269
-35.778072 30.920185 14.594194
-35.261575 30.920828 14.726235
-34.858868 30.92093 14.872952
-34.474179 30.920634 15.03082
-34.009278 30.921564 15.155053
-33.560958 30.922053 15.29136
-33.216912 30.921595 15.453736
-32.778274 30.922443 15.580371
-32.299511 30.924307 15.67921
-31.932291 30.926069 15.780829
-31.428292 30.928366 15.86798
-30.961858 30.930795 15.951457
-30.599229 30.933185 16.036276
-30.103285 30.936258 16.102284
-29.641613 30.939916 16.152322
-29.19995 30.943897 16.193703
-28.706679 30.947788 16.237605
-28.264413 30.951306 16.291888
-27.831269 30.954976 16.341979
-27.351856 30.959316 16.373875
-26.873557 30.964423 16.384866
-26.392052 30.970151 16.378906
-25.904784 30.975979 16.370364
-25.432646 30.981699 16.36496
-24.948237 30.987961 16.344761
-24.464002 30.995017 16.303044
-23.965038 31.002529 16.248945
-23.417231 31.010222 16.189992
-22.957655 31.017812 16.134035
-22.483492 31.025859 16.065614
-21.925991 31.034982 15.967987
-21.413589 31.045036 15.845217
-20.854965 31.055555 15.709821
-20.328833 31.065935 15.578249
-19.82278 31.076645 15.437971
-19.269757 31.088375 15.270006
-18.699031 31.100951 15.079172
-18.123634 31.113965 14.876426
-17.578078 31.127168 14.668772
-17.036648 31.140812 14.449355
-16.454764 31.155406 14.204132
-15.83375 31.171078 13.929697
-15.245268 31.18713 13.645208
-14.657085 31.203844 13.342929
-14.032125 31.223096 12.971703
-13.343893 31.244719 12.536096
-12.697953 31.266898 12.085614
-12.025496 31.289771 11.616582
-11.343561 31.314977 11.084381
-10.599277 31.343441 10.463837
-9.8413751 31.374976 9.7601097
-9.0600327 31.40967 8.9707561
-48.533071 30.716423 2.478522
-48.288807 30.700309 3.0790309
-47.901742 30.687289 3.592642
-47.477905 30.675093 4.0832302
-47.226597 30.661818 4.6040192
-47.052551 30.648092 5.137241
-46.788558 30.635815 5.629837
-46.431713 30.625204 6.0757562
-45.996331 30.614769 6.5167123
-45.744691 30.603522 6.9802878
-45.522131 30.592691 7.4321008
-45.131553 30.584138 7.8203464
-44.701889 30.576654 8.1785386
-44.365302 30.567696 8.5779848
-44.16978 30.558135 8.9940801
-43.82145 30.550512 9.3560889
-43.378226 30.544637 9.6692434
-43.005187 30.538449 9.9910488
-42.747028 30.53179 10.326013
-42.359434 30.526366 10.626605
-41.882675 30.521773 10.903827
-41.558113 30.516513 11.199761
-41.283607 30.511003 11.502672
-40.902324 30.506421 11.779559
-40.421598 30.502271 12.044542
-40.117942 30.497631 12.323117
-39.751295 30.49374 12.580851
-39.29621 30.491054 12.804863
-38.886242 30.487716 13.047226
-38.610645 30.483784 13.306141
-38.187414 30.481238 13.526359
-37.729602 30.479308 13.729461
-37.391476 30.476568 13.955165
-37.012931 30.474737 14.155637
-36.523074 30.474262 14.318338
-36.13387 30.47302 14.502298
-35.808973 30.471962 14.681326
-35.30924 30.472578 14.813673
-34.882884 30.472806 14.956996
-34.496278 30.472379 15.118515
-34.050528 30.473156 15.246692
-33.586413 30.473802 15.378397
-33.253502 30.473391 15.53956
-32.816552 30.474151 15.668368
-32.322943 30.475928 15.768852
-31.953882 30.477483 15.87549
-31.470284 30.479597 15.966747
-30.996855 30.481923 16.052093
-30.619334 30.484207 16.138822
-30.142497 30.487103 16.208576
-29.674046 30.49065 16.260352
-29.223671 30.494664 16.299177
-28.755989 30.498572 16.340991
-28.297024 30.502113 16.393108
-27.879469 30.505754 16.442601
-27.394472 30.510036 16.474292
-26.90055 30.515108 16.484214
-26.443414 30.520774 16.477646
-25.940077 30.526662 16.465185
-25.457323 30.532513 16.453754
-24.976755 30.538812 16.430067
-24.494192 30.545762 16.388427
-23.989942 30.553058 16.337305
-23.46419 30.560538 16.281184
-22.986509 30.567953 16.22704
-22.507792 30.575691 16.164007
-21.969708 30.58438 16.074803
-21.46508 30.593885 15.963098
-20.905823 30.603863 15.838454
-20.373402 30.613935 15.711349
-19.874867 30.624513 15.570411
-19.311406 30.636219 15.398314
-18.745674 30.648805 15.202157
-18.168915 30.661833 14.993939
-17.618516 30.674988 14.782242
-17.078558 30.688426 14.563181
-16.496208 30.702645 14.322439
-15.882229 30.717785 14.056521
-15.305305 30.733211 13.782808
-14.712623 30.749371 13.489095
-14.090451 30.768171 13.122709
-13.402536 30.789474 12.687417
-12.757557 30.811347 12.236492
-12.074688 30.83349 11.778553
-11.428862 30.857414 11.271661
-10.670268 30.884281 10.683751
-9.9488497 30.914634 10.000056
-9.1450103 30.948959 9.2071528
-48.552167 30.264942 2.5601708
-48.330747 30.248377 3.1800931
-47.988273 30.234806 3.7149179
-47.534138 30.222703 4.207897
-47.251705 30.209785 4.7239033
-47.072232 30.196292 5.256224
-46.838515 30.184148 5.7501313
-46.483453 30.173864 6.1911219
-46.034072 30.164111 6.6170348
-45.76141 30.153435 7.0690741
-45.545891 30.142691 7.522942
-45.177758 30.133959 7.919698
-44.754483 30.126633 8.2764076
-44.38388 30.118093 8.6676618
-44.190206 30.108547 9.0874201
-43.883346 30.100681 9.4593745
-43.426573 30.094944 9.7710695
-43.02698 30.089106 10.085565
-42.766366 30.082528 10.421012
-42.411864 30.07713 10.722995
-41.912179 30.072777 10.995375
-41.57399 30.067688 11.288563
-41.314449 30.062201 11.593073
-40.945869 30.057719 11.869006
-40.447321 30.053804 12.129059
-40.13586 30.049352 12.404162
-39.779335 30.045494 12.662532
-39.335851 30.042879 12.885737
-38.904231 30.03969 13.125218
-38.638171 30.035717 13.386819
-38.226642 30.033058 13.61138
-37.772462 30.031288 13.810728
-37.412994 30.028751 14.031803
-37.052207 30.026918 14.23295
-36.548994 30.026566 14.392359
-36.152989 30.025501 14.571943
-35.834864 30.024335 14.754479
-35.348579 30.024812 14.890525
-34.914963 30.02502 15.034216
-34.530837 30.024422 15.200705
-34.084249 30.025048 15.33271
-33.614341 30.025819 15.460663
-33.293188 30.025512 15.619135
-32.857254 30.026289 15.747042
-32.35038 30.028064 15.846824
-31.975914 30.029546 15.95494
-31.506754 30.031627 16.046213
-31.031495 30.033924 16.131485
-30.642562 30.036014 16.222771
-30.184578 30.038679 16.297763
-29.711615 30.042069 16.352421
-29.266262 30.045876 16.395342
-28.797854 30.049747 16.436657
-28.320327 30.053457 16.48261
-27.910316 30.057129 16.529709
-27.433628 30.061346 16.561512
-26.933484 30.066339 16.571438
-26.483467 30.071899 16.565589
-25.970696 30.077757 16.551409
-25.48535 30.083656 16.536297
-25.026143 30.089973 16.509492
-24.511317 30.096862 16.466586
-24.006184 30.103983 16.417511
